x,y,z,C,R,G,B
-5.418032185513392,0.9138871469686544,-0.354643609600891,3,0.7044998241158895,0.8574748872106308,0.931020286498663
-5.497910847231702,1.5601316301337556,-0.4145680165851405,3,0.7044998241158895,0.8574748872106308,0.931020286498663
-7.187958173355,1.48607297807461,1.2159138182531812,3,0.7044998241158895,0.8574748872106308,0.931020286498663
-6.467568025640538,1.0976267249992595,0.7778260129357062,3,0.7044998241158895,0.8574748872106308,0.931020286498663
-6.817557519921287,1.9420363410166284,0.7841098114225474,3,0.7044998241158895,0.8574748872106308,0.931020286498663
-5.290611266187262,1.3020476940791594,0.5483445290425643,3,0.7044998241158895,0.8574748872106308,0.931020286498663
-5.326741833029108,1.10622112984925,0.4964551490222177,3,0.7044998241158895,0.8574748872106308,0.931020286498663
-5.25561157803877,0.8945852546241452,0.4359629382980857,3,0.7044998241158895,0.8574748872106308,0.931020286498663
-5.289930228246281,1.509375265403134,0.4058061394501475,3,0.7044998241158895,0.8574748872106308,0.931020286498663
-5.225811608375012,1.28687410105913,0.3453926693232865,3,0.7044998241158895,0.8574748872106308,0.931020286498663
-5.195825878346623,1.080925468486165,0.2902077126712015,3,0.7044998241158895,0.8574748872106308,0.931020286498663
-5.210192467826015,0.889661563624423,0.2389085639690224,3,0.7044998241158895,0.8574748872106308,0.931020286498663
-5.349172088180731,1.528096003128701,0.2068113207598476,3,0.7044998241158895,0.8574748872106308,0.931020286498663
-5.193134657958583,1.281711656207893,0.1475415534653517,3,0.7044998241158895,0.8574748872106308,0.931020286498663
-5.291355754561997,1.1031118163132725,0.0976495240539714,3,0.7044998241158895,0.8574748872106308,0.931020286498663
-5.357160327226552,0.915334247047926,0.0471441540591626,3,0.7044998241158895,0.8574748872106308,0.931020286498663
-5.221549945824465,1.4937084235130866,0.0036967641937891,3,0.7044998241158895,0.8574748872106308,0.931020286498663
-5.174245691676449,1.2781994708437954,-0.0478147490474049,3,0.7044998241158895,0.8574748872106308,0.931020286498663
-5.317338489049128,1.1106591956327492,-0.099180122360887,3,0.7044998241158895,0.8574748872106308,0.931020286498663
-5.206933895037243,0.8929402580605731,-0.1473814520284598,3,0.7044998241158895,0.8574748872106308,0.931020286498663
-5.205061695157636,1.4913507237437622,-0.1947556336817519,3,0.7044998241158895,0.8574748872106308,0.931020286498663
-5.221910158763063,1.292488622790401,-0.2436224781268469,3,0.7044998241158895,0.8574748872106308,0.931020286498663
-5.2852679594398735,1.1064637479454649,-0.2968878393008207,3,0.7044998241158895,0.8574748872106308,0.931020286498663
-5.406351412462223,0.9289841428423772,-0.3540639245288965,3,0.7044998241158895,0.8574748872106308,0.931020286498663
-5.508437118241781,1.5813950631215532,-0.415725628172493,3,0.7044998241158895,0.8574748872106308,0.931020286498663
-7.155365494902246,1.5022398542812485,1.2111744137195528,3,0.7044998241158895,0.8574748872106308,0.931020286498663
-6.457320702412639,1.1162797005654732,0.7770018005807592,3,0.7044998241158895,0.8574748872106308,0.931020286498663
-6.874602126152781,1.9811084284809053,0.7913660213573621,3,0.7044998241158895,0.8574748872106308,0.931020286498663
-5.363824321646329,1.3375318531139246,0.5563553928294614,3,0.7044998241158895,0.8574748872106308,0.931020286498663
-5.267572971168658,0.9132588565178086,0.4371854899659103,3,0.7044998241158895,0.8574748872106308,0.931020286498663
-5.487448816910583,1.583955037300039,0.4213291854740567,3,0.7044998241158895,0.8574748872106308,0.931020286498663
-5.247014040828957,1.3091819414745272,0.3470578443415374,3,0.7044998241158895,0.8574748872106308,0.931020286498663
-5.203231503538896,1.099131036328354,0.2908083190075886,3,0.7044998241158895,0.8574748872106308,0.931020286498663
-5.205470222952249,0.9052996858165042,0.2388182484239165,3,0.7044998241158895,0.8574748872106308,0.931020286498663
-5.327178134265584,1.539506032495002,0.2061426309466094,3,0.7044998241158895,0.8574748872106308,0.931020286498663
-5.194996518117402,1.2990929576292864,0.1477069862419849,3,0.7044998241158895,0.8574748872106308,0.931020286498663
-5.2586015151221055,1.1131286948670545,0.0971076283658766,3,0.7044998241158895,0.8574748872106308,0.931020286498663
-5.361222977681267,0.9329655279954772,0.0472048762036264,3,0.7044998241158895,0.8574748872106308,0.931020286498663
-5.237114797081038,1.515558544626196,0.0037110583633028,3,0.7044998241158895,0.8574748872106308,0.931020286498663
-5.13634852391075,1.285570163173986,-0.0475007667187187,3,0.7044998241158895,0.8574748872106308,0.931020286498663
-5.436165709397324,1.15289611886022,-0.1014620116221128,3,0.7044998241158895,0.8574748872106308,0.931020286498663
-5.209093261157876,0.9097705991837224,-0.1475208821738992,3,0.7044998241158895,0.8574748872106308,0.931020286498663
-5.32428246358692,1.5432010390113724,-0.1993926667314119,3,0.7044998241158895,0.8574748872106308,0.931020286498663
-5.2227651630681775,1.3097180559783848,-0.2438486778978246,3,0.7044998241158895,0.8574748872106308,0.931020286498663
-5.267198646028453,1.1195596554892668,-0.2960643716861793,3,0.7044998241158895,0.8574748872106308,0.931020286498663
-5.393645874539372,0.9438460574100218,-0.353419807043253,3,0.7044998241158895,0.8574748872106308,0.931020286498663
-5.523673510464676,1.6041286131821093,-0.4172449806107665,3,0.7044998241158895,0.8574748872106308,0.931020286498663
-7.222124155146899,1.539404419536693,1.223268079105171,3,0.7044998241158895,0.8574748872106308,0.931020286498663
-6.45093141998376,1.1355687756368054,0.7766485243047305,3,0.7044998241158895,0.8574748872106308,0.931020286498663
-6.877079790304465,2.004693590242528,0.7923554593567592,3,0.7044998241158895,0.8574748872106308,0.931020286498663
-5.3905652365728605,1.3617799247102604,0.5595597974565285,3,0.7044998241158895,0.8574748872106308,0.931020286498663
-5.175731617379121,1.1080306814770366,0.4830055092618264,3,0.7044998241158895,0.8574748872106308,0.931020286498663
-5.248060684485008,0.9264696906623404,0.4357999491265508,3,0.7044998241158895,0.8574748872106308,0.931020286498663
-5.572551537793011,1.6270572697071608,0.4282446655226001,3,0.7044998241158895,0.8574748872106308,0.931020286498663
-5.2468426625883575,1.326251703103586,0.3473140246766938,3,0.7044998241158895,0.8574748872106308,0.931020286498663
-5.233029350734606,1.122207666986946,0.2926647942868461,3,0.7044998241158895,0.8574748872106308,0.931020286498663
-5.184962243047767,0.9181302534505866,0.2380054796778238,3,0.7044998241158895,0.8574748872106308,0.931020286498663
-5.356960036534734,1.5659361123703874,0.2074800102650778,3,0.7044998241158895,0.8574748872106308,0.931020286498663
-5.194862753360838,1.3160068244217835,0.1478172845884665,3,0.7044998241158895,0.8574748872106308,0.931020286498663
-5.248319130155883,1.127786210352232,0.0969811918764319,3,0.7044998241158895,0.8574748872106308,0.931020286498663
-5.353412343469582,0.9485368749933532,0.0471615027274815,3,0.7044998241158895,0.8574748872106308,0.931020286498663
-5.2545144420345125,1.5380799728917474,0.0037267139010363,3,0.7044998241158895,0.8574748872106308,0.931020286498663
-5.170182862678716,1.3109071106715156,-0.0478506311615827,3,0.7044998241158895,0.8574748872106308,0.931020286498663
-5.433580602527623,1.1697790706623952,-0.1014802656135192,3,0.7044998241158895,0.8574748872106308,0.931020286498663
-5.209230320334639,0.9262725844866933,-0.1476045520681281,3,0.7044998241158895,0.8574748872106308,0.931020286498663
-5.313768641922058,1.5578416355289435,-0.1991769871160894,3,0.7044998241158895,0.8574748872106308,0.931020286498663
-5.258419680456494,1.335819507729468,-0.2457035450744834,3,0.7044998241158895,0.8574748872106308,0.931020286498663
-5.28716371999882,1.1407680490595318,-0.2973819318474487,3,0.7044998241158895,0.8574748872106308,0.931020286498663
-5.396619653082104,0.9614392415413676,-0.3538062543608281,3,0.7044998241158895,0.8574748872106308,0.931020286498663
-5.535951050001874,1.6261271538054805,-0.4185473114357441,3,0.7044998241158895,0.8574748872106308,0.931020286498663
-7.221224323087373,1.5623888539889317,1.22392182236973,3,0.7044998241158895,0.8574748872106308,0.931020286498663
-7.547791317308154,1.3484592532506077,1.1958691719668202,3,0.7044998241158895,0.8574748872106308,0.931020286498663
-6.440574802307352,1.154128416418832,0.7758243109721459,3,0.7044998241158895,0.8574748872106308,0.931020286498663
-6.9004514214817245,2.03449638764252,0.7957637118500833,3,0.7044998241158895,0.8574748872106308,0.931020286498663
-5.303465025973696,1.3570991069204124,0.5509480594389675,3,0.7044998241158895,0.8574748872106308,0.931020286498663
-5.224858069604668,1.1353231716942078,0.4879127898519307,3,0.7044998241158895,0.8574748872106308,0.931020286498663
-5.258927171206762,0.9450341021515596,0.4369409911577436,3,0.7044998241158895,0.8574748872106308,0.931020286498663
-5.602922810141893,1.654596648903672,0.4309666916762901,3,0.7044998241158895,0.8574748872106308,0.931020286498663
-5.259183902778902,1.3465504779094697,0.3484027634190349,3,0.7044998241158895,0.8574748872106308,0.931020286498663
-5.225659119232205,1.1374076036794596,0.2924463733614776,3,0.7044998241158895,0.8574748872106308,0.931020286498663
-5.188019514210475,0.935096375612106,0.2382764118463036,3,0.7044998241158895,0.8574748872106308,0.931020286498663
-5.362672076171082,1.5854802259673937,0.2078886596997325,3,0.7044998241158895,0.8574748872106308,0.931020286498663
-5.191768721903876,1.332186705512485,0.1478448516110032,3,0.7044998241158895,0.8574748872106308,0.931020286498663
-5.243857445791073,1.1436693755653902,0.0969631242772036,3,0.7044998241158895,0.8574748872106308,0.931020286498663
-5.466599097485289,0.9858989744940834,0.0481850559904806,3,0.7044998241158895,0.8574748872106308,0.931020286498663
-5.106900222388836,1.5118965739953023,0.0036252928669231,3,0.7044998241158895,0.8574748872106308,0.931020286498663
-5.180664516514974,1.330493867973447,-0.0479851960096857,3,0.7044998241158895,0.8574748872106308,0.931020286498663
-5.368428687568592,1.1729975988659038,-0.1003301940208476,3,0.7044998241158895,0.8574748872106308,0.931020286498663
-5.216200415067183,0.9440300901591376,-0.1478834126350277,3,0.7044998241158895,0.8574748872106308,0.931020286498663
-5.34728922264135,1.5855001713971804,-0.200614829921008,3,0.7044998241158895,0.8574748872106308,0.931020286498663
-5.285255508771244,1.3599116732643908,-0.2471512525340369,3,0.7044998241158895,0.8574748872106308,0.931020286498663
-5.312900378876088,1.1633910368320777,-0.2990288677436474,3,0.7044998241158895,0.8574748872106308,0.931020286498663
-5.400517975896425,0.9792376509309884,-0.3542571335114687,3,0.7044998241158895,0.8574748872106308,0.931020286498663
-5.575871713726271,1.6564528603128186,-0.4219477565931994,3,0.7044998241158895,0.8574748872106308,0.931020286498663
-6.440911684374228,1.1745950560583551,0.7762953072962308,3,0.7044998241158895,0.8574748872106308,0.931020286498663
-6.872269717869627,2.0491247191791357,0.7932350440122311,3,0.7044998241158895,0.8574748872106308,0.931020286498663
-5.248229388870588,1.3601341013337132,0.5456408617399489,3,0.7044998241158895,0.8574748872106308,0.931020286498663
-5.244690451034768,1.1564940882127313,0.4900938424087248,3,0.7044998241158895,0.8574748872106308,0.931020286498663
-5.240316492856309,0.9582952015237473,0.4356369310561128,3,0.7044998241158895,0.8574748872106308,0.931020286498663
-5.615020649770735,1.6769152955884474,0.4322909570567758,3,0.7044998241158895,0.8574748872106308,0.931020286498663
-5.225070412583514,1.15408043327651,0.292610167790135,3,0.7044998241158895,0.8574748872106308,0.931020286498663
-5.176283346157296,0.9493866224976968,0.2378700278720213,3,0.7044998241158895,0.8574748872106308,0.931020286498663
-5.354910051451684,1.6010663926480353,0.2077772135473007,3,0.7044998241158895,0.8574748872106308,0.931020286498663
-5.227324184501185,1.358416643930909,0.1489753428637769,3,0.7044998241158895,0.8574748872106308,0.931020286498663
-5.244228932290622,1.160616185082927,0.0970353799479425,3,0.7044998241158895,0.8574748872106308,0.931020286498663
-5.487153517006726,1.00699759937044,0.0483932363747637,3,0.7044998241158895,0.8574748872106308,0.931020286498663
-5.232524107541643,1.5665635828531663,0.0037178651682075,3,0.7044998241158895,0.8574748872106308,0.931020286498663
-5.11365386968203,1.330020677524051,-0.0474020875809107,3,0.7044998241158895,0.8574748872106308,0.931020286498663
-5.221313659019394,1.157647912031465,-0.0976466885853236,3,0.7044998241158895,0.8574748872106308,0.931020286498663
-5.219177910971238,0.961114967890628,-0.1480507375003813,3,0.7044998241158895,0.8574748872106308,0.931020286498663
-5.341442527581068,1.601610943663143,-0.2005788881742378,3,0.7044998241158895,0.8574748872106308,0.931020286498663
-5.270424764916048,1.373349382729284,-0.2466536129941143,3,0.7044998241158895,0.8574748872106308,0.931020286498663
-5.312230694848413,1.1803349630984483,-0.299193556074247,3,0.7044998241158895,0.8574748872106308,0.931020286498663
-5.415152719706227,0.999060546626934,-0.3554165327625376,3,0.7044998241158895,0.8574748872106308,0.931020286498663
-5.643359682381406,1.695360609573534,-0.4274464047221495,3,0.7044998241158895,0.8574748872106308,0.931020286498663
-7.539375221922173,1.3947462557001646,1.1958691719154697,3,0.7044998241158895,0.8574748872106308,0.931020286498663
-6.788865053574464,1.516239320202167,0.8913468909360052,3,0.7044998241158895,0.8574748872106308,0.931020286498663
-6.440206626679289,1.1948935014243924,0.7766485241547529,3,0.7044998241158895,0.8574748872106308,0.931020286498663
-6.871660561043409,2.0719204775355755,0.7938946889938205,3,0.7044998241158895,0.8574748872106308,0.931020286498663
-5.353743593296983,1.4050214462122506,0.5570564016224805,3,0.7044998241158895,0.8574748872106308,0.931020286498663
-5.262498124642632,1.1773625144306683,0.4920931017413791,3,0.7044998241158895,0.8574748872106308,0.931020286498663
-5.245190475301282,0.975826093600908,0.436288975131108,3,0.7044998241158895,0.8574748872106308,0.931020286498663
-5.648037730936907,1.7056666399775673,0.4352336983599061,3,0.7044998241158895,0.8574748872106308,0.931020286498663
-5.221504758625104,1.1701053026220147,0.2926101672214634,3,0.7044998241158895,0.8574748872106308,0.931020286498663
-5.191022565242148,0.968560945259358,0.2386827963805615,3,0.7044998241158895,0.8574748872106308,0.931020286498663
-5.382495885491932,1.6273202908691196,0.2090402959983767,3,0.7044998241158895,0.8574748872106308,0.931020286498663
-5.23569938829452,1.3777544921439278,0.1493337758429162,3,0.7044998241158895,0.8574748872106308,0.931020286498663
-5.250399182647272,1.1788902208907086,0.0972160119025637,3,0.7044998241158895,0.8574748872106308,0.931020286498663
-5.486004174626027,1.024194281758796,0.048410585033633,3,0.7044998241158895,0.8574748872106308,0.931020286498663
-5.165481860736754,1.563775696066139,0.0036736210632446,3,0.7044998241158895,0.8574748872106308,0.931020286498663
-5.134690664090261,1.3523244423727443,-0.0476353316182899,3,0.7044998241158895,0.8574748872106308,0.931020286498663
-5.214811180719844,1.173003027367361,-0.0975919267678263,3,0.7044998241158895,0.8574748872106308,0.931020286498663
-5.20146683032598,0.9743619209336458,-0.1476324321896662,3,0.7044998241158895,0.8574748872106308,0.931020286498663
-5.34798016801359,1.6214703001518245,-0.2010102324071715,3,0.7044998241158895,0.8574748872106308,0.931020286498663
-5.289368806666962,1.3956289679775078,-0.2477394010449631,3,0.7044998241158895,0.8574748872106308,0.931020286498663
-5.296895830796278,1.193992351658884,-0.2985347758642685,3,0.7044998241158895,0.8574748872106308,0.931020286498663
-5.419908782971299,1.017141812382838,-0.3559318152933661,3,0.7044998241158895,0.8574748872106308,0.931020286498663
-5.769828034614413,1.752670862037938,-0.4374307781207955,3,0.7044998241158895,0.8574748872106308,0.931020286498663
-7.424365389231559,1.3970406105790625,1.1783009426362387,3,0.7044998241158895,0.8574748872106308,0.931020286498663
-6.460906259215395,1.2192498528701854,0.7795921599254461,3,0.7044998241158895,0.8574748872106308,0.931020286498663
-6.873828417261508,2.095601410718192,0.7948841273335099,3,0.7044998241158895,0.8574748872106308,0.931020286498663
-5.443645124030343,1.44648056746363,0.5668697107665609,3,0.7044998241158895,0.8574748872106308,0.931020286498663
-5.228755351216321,1.1866694974176766,0.4892759483591195,3,0.7044998241158895,0.8574748872106308,0.931020286498663
-5.2549028770510535,0.9943224217860428,0.4373485077684048,3,0.7044998241158895,0.8574748872106308,0.931020286498663
-5.638009208251192,1.7215303190885762,0.4348658485093379,3,0.7044998241158895,0.8574748872106308,0.931020286498663
-5.304434574051437,1.410282639354196,0.3522454452921922,3,0.7044998241158895,0.8574748872106308,0.931020286498663
-5.205232769145945,1.1832418046673003,0.291900364932745,3,0.7044998241158895,0.8574748872106308,0.931020286498663
-5.194897005126872,0.9857859210534328,0.2389988652649482,3,0.7044998241158895,0.8574748872106308,0.931020286498663
-5.393724217354293,1.6487920409027188,0.2096718370516267,3,0.7044998241158895,0.8574748872106308,0.931020286498663
-5.270085039624493,1.404104948002655,0.1504366853999729,3,0.7044998241158895,0.8574748872106308,0.931020286498663
-5.255531305929138,1.196990994590379,0.0973785761321838,3,0.7044998241158895,0.8574748872106308,0.931020286498663
-5.483818622096467,1.0412068081902703,0.048419257562257,3,0.7044998241158895,0.8574748872106308,0.931020286498663
-5.174963003109425,1.379922536239672,-0.0480479895867698,3,0.7044998241158895,0.8574748872106308,0.931020286498663
-5.215086888916682,1.1898858829125525,-0.0976649425046414,3,0.7044998241158895,0.8574748872106308,0.931020286498663
-5.18666965791257,0.9880704158586456,-0.1472977966765262,3,0.7044998241158895,0.8574748872106308,0.931020286498663
-5.347757608010833,1.6393345018780665,-0.2011899698906865,3,0.7044998241158895,0.8574748872106308,0.931020286498663
-5.316911586999874,1.420358183709601,-0.2492323485435303,3,0.7044998241158895,0.8574748872106308,0.931020286498663
-5.293207658997986,1.2102373689345582,-0.2985347756789397,3,0.7044998241158895,0.8574748872106308,0.931020286498663
-5.41970331020011,1.0343262864702478,-0.3561250531724158,3,0.7044998241158895,0.8574748872106308,0.931020286498663
-5.793026727091986,1.779148754640873,-0.4396012817701412,3,0.7044998241158895,0.8574748872106308,0.931020286498663
-7.488946199409985,1.4329958732973698,1.1892425665802624,3,0.7044998241158895,0.8574748872106308,0.931020286498663
-6.45323402856711,1.2383172660426365,0.7791212220588706,3,0.7044998241158895,0.8574748872106308,0.931020286498663
-6.903460576168765,2.127805261227568,0.7990619939985134,3,0.7044998241158895,0.8574748872106308,0.931020286498663
-5.354630127164452,1.4404296656452933,0.5580577602465467,3,0.7044998241158895,0.8574748872106308,0.931020286498663
-5.266820857123802,1.2123110849893317,0.4931836282591694,3,0.7044998241158895,0.8574748872106308,0.931020286498663
-5.256721192035398,1.0113811079205748,0.437756024702709,3,0.7044998241158895,0.8574748872106308,0.931020286498663
-5.634606731678243,1.7394077325191812,0.43501298232884,3,0.7044998241158895,0.8574748872106308,0.931020286498663
-5.243227704528725,1.4112467354896303,0.3484668092625105,3,0.7044998241158895,0.8574748872106308,0.931020286498663
-5.210334949470802,1.201224476611601,0.2923917754468278,3,0.7044998241158895,0.8574748872106308,0.931020286498663
-5.192829055903911,1.0019082931353729,0.2390440158303909,3,0.7044998241158895,0.8574748872106308,0.931020286498663
-5.512758198872087,1.7036901240547548,0.2145012732028507,3,0.7044998241158895,0.8574748872106308,0.931020286498663
-5.2638221643089125,1.4197461219878833,0.1503815507528764,3,0.7044998241158895,0.8574748872106308,0.931020286498663
-5.232350690948709,1.208608531406465,0.0970173124485704,3,0.7044998241158895,0.8574748872106308,0.931020286498663
-5.474707443120752,1.0568887458382712,0.0483672151859924,3,0.7044998241158895,0.8574748872106308,0.931020286498663
-5.144639058031489,1.388756258113694,-0.0478057785556273,3,0.7044998241158895,0.8574748872106308,0.931020286498663
-5.193878168244349,1.20182281891741,-0.0973363496009609,3,0.7044998241158895,0.8574748872106308,0.931020286498663
-5.166930977515034,1.0007469434805465,-0.1468237167176249,3,0.7044998241158895,0.8574748872106308,0.931020286498663
-5.4009316681599735,1.6737788647146608,-0.2033826759612063,3,0.7044998241158895,0.8574748872106308,0.931020286498663
-5.332779895875743,1.4421400731897571,-0.2501823873958756,3,0.7044998241158895,0.8574748872106308,0.931020286498663
-5.317677618665559,1.2330115554615546,-0.3001268155839457,3,0.7044998241158895,0.8574748872106308,0.931020286498663
-5.42140275552529,1.051899288071824,-0.3564470972185021,3,0.7044998241158895,0.8574748872106308,0.931020286498663
-5.796113774302752,1.7995748052997875,-0.4402524326881425,3,0.7044998241158895,0.8574748872106308,0.931020286498663
-6.461100436882935,1.260391281136581,0.7805341500651539,3,0.7044998241158895,0.8574748872106308,0.931020286498663
-6.856095840388872,2.136260655792511,0.7943344523380833,3,0.7044998241158895,0.8574748872106308,0.931020286498663
-5.4673081145174365,1.4887429746541954,0.5702743288857617,3,0.7044998241158895,0.8574748872106308,0.931020286498663
-5.230118532251175,1.0229123297983596,0.4357999496382719,3,0.7044998241158895,0.8574748872106308,0.931020286498663
-5.647332232209442,1.7623309782851957,0.4364108008368832,3,0.7044998241158895,0.8574748872106308,0.931020286498663
-5.244650466137032,1.4289001356610018,0.3488510803092585,3,0.7044998241158895,0.8574748872106308,0.931020286498663
-5.226071018664385,1.2217499599892363,0.2934837926527326,3,0.7044998241158895,0.8574748872106308,0.931020286498663
-5.195612878107922,1.0189884266955702,0.2393149487358407,3,0.7044998241158895,0.8574748872106308,0.931020286498663
-5.584766893088806,1.74473221625032,0.2175103838669016,3,0.7044998241158895,0.8574748872106308,0.931020286498663
-5.275834959417437,1.4403642916971613,0.1508502816256211,3,0.7044998241158895,0.8574748872106308,0.931020286498663
-5.243220486497959,1.2280757172505448,0.0972882602733244,3,0.7044998241158895,0.8574748872106308,0.931020286498663
-5.476345559822251,1.0746426897059476,0.0484105850716751,3,0.7044998241158895,0.8574748872106308,0.931020286498663
-5.139389528183922,1.4042697608104169,-0.047796804410255,3,0.7044998241158895,0.8574748872106308,0.931020286498663
-5.167778473768095,1.2124989574479297,-0.0969164869308925,3,0.7044998241158895,0.8574748872106308,0.931020286498663
-5.169720901523374,1.0177527006360452,-0.1469910415625634,3,0.7044998241158895,0.8574748872106308,0.931020286498663
-5.359532623394246,1.6789881667752669,-0.2020167313355064,3,0.7044998241158895,0.8574748872106308,0.931020286498663
-5.325439517790121,1.4577028240151153,-0.2500466672455012,3,0.7044998241158895,0.8574748872106308,0.931020286498663
-5.309981993394186,1.2484060532723935,-0.2999072321162321,3,0.7044998241158895,0.8574748872106308,0.931020286498663
-5.414233935548254,1.0677546352982332,-0.3561894563615257,3,0.7044998241158895,0.8574748872106308,0.931020286498663
-5.807694159333324,1.8227243712996528,-0.4415547340895253,3,0.7044998241158895,0.8574748872106308,0.931020286498663
-7.296816668345193,1.442699487984806,1.1601163987840135,3,0.7044998241158895,0.8574748872106308,0.931020286498663
-6.451359101336871,1.2790490282249822,0.7798276577206569,3,0.7044998241158895,0.8574748872106308,0.931020286498663
-6.8599376034060375,2.1605691556276687,0.7955438295865636,3,0.7044998241158895,0.8574748872106308,0.931020286498663
-5.458877971716464,1.504451958564205,0.5698737852189358,3,0.7044998241158895,0.8574748872106308,0.931020286498663
-5.255406768109289,1.2436875003125052,0.4928201002837652,3,0.7044998241158895,0.8574748872106308,0.931020286498663
-5.224022683282136,1.0383704491188717,0.435555421347506,3,0.7044998241158895,0.8574748872106308,0.931020286498663
-5.621925932588958,1.773348257658702,0.4348658486268006,3,0.7044998241158895,0.8574748872106308,0.931020286498663
-5.246976285531991,1.446840726297138,0.3492993965557195,3,0.7044998241158895,0.8574748872106308,0.931020286498663
-5.225213096997427,1.238468458089939,0.2936476157881071,3,0.7044998241158895,0.8574748872106308,0.931020286498663
-5.197360487875601,1.0358999062057508,0.2395407159343094,3,0.7044998241158895,0.8574748872106308,0.931020286498663
-5.607022791006071,1.7705843669311505,0.2185877083608537,3,0.7044998241158895,0.8574748872106308,0.931020286498663
-5.26271979657503,1.4541474960795302,0.1506021326466258,3,0.7044998241158895,0.8574748872106308,0.931020286498663
-5.230673229098996,1.2420768867262868,0.0971256960181984,3,0.7044998241158895,0.8574748872106308,0.931020286498663
-5.469100155401063,1.0906565676572233,0.0483758877204176,3,0.7044998241158895,0.8574748872106308,0.931020286498663
-5.247924710380101,1.6593039015284197,0.0037464537445215,3,0.7044998241158895,0.8574748872106308,0.931020286498663
-5.167826089646392,1.4290923354441796,-0.0481018162721577,3,0.7044998241158895,0.8574748872106308,0.931020286498663
-5.1426347812068585,1.2232575552407576,-0.096514870817626,3,0.7044998241158895,0.8574748872106308,0.931020286498663
-5.181276953346202,1.0365497343523051,-0.1474093323249712,3,0.7044998241158895,0.8574748872106308,0.931020286498663
-5.367694519696304,1.6996465754675811,-0.2025199733587865,3,0.7044998241158895,0.8574748872106308,0.931020286498663
-5.254514740814583,1.4556320360946506,-0.2469250524915063,3,0.7044998241158895,0.8574748872106308,0.931020286498663
-5.382858438899756,1.2829796188777685,-0.3042441558058554,3,0.7044998241158895,0.8574748872106308,0.931020286498663
-5.4236528015957335,1.086909372091426,-0.3570267827745278,3,0.7044998241158895,0.8574748872106308,0.931020286498663
-5.799222977547056,1.839628866469276,-0.4413376842201481,3,0.7044998241158895,0.8574748872106308,0.931020286498663
-7.320448426840301,1.4707228869021114,1.164585437010785,3,0.7044998241158895,0.8574748872106308,0.931020286498663
-6.472715123124569,1.3039343021756782,0.7828890701831069,3,0.7044998241158895,0.8574748872106308,0.931020286498663
-6.825810639225823,2.1728617787320923,0.7923554587904015,3,0.7044998241158895,0.8574748872106308,0.931020286498663
-5.423567965435748,1.5126389702718288,0.5666694393447207,3,0.7044998241158895,0.8574748872106308,0.931020286498663
-5.208112044037838,1.0518276801119806,0.4344958886631819,3,0.7044998241158895,0.8574748872106308,0.931020286498663
-5.5641995232902905,1.7739269204437096,0.4308195575435064,3,0.7044998241158895,0.8574748872106308,0.931020286498663
-5.278077724631242,1.4728558560295235,0.3516690385279031,3,0.7044998241158895,0.8574748872106308,0.931020286498663
-5.221388713025681,1.2544933623085632,0.2936476154654628,3,0.7044998241158895,0.8574748872106308,0.931020286498663
-5.1461819860901805,1.042124909646716,0.2373281770652283,3,0.7044998241158895,0.8574748872106308,0.931020286498663
-5.45971674044316,1.7425064227688074,0.2130524338623686,3,0.7044998241158895,0.8574748872106308,0.931020286498663
-5.29674134735109,1.48105375347194,0.1517050419243386,3,0.7044998241158895,0.8574748872106308,0.931020286498663
-5.228781795977292,1.2585865400140503,0.0971618236941399,3,0.7044998241158895,0.8574748872106308,0.931020286498663
-5.456907996168737,1.1056432576565365,0.0482978205482366,3,0.7044998241158895,0.8574748872106308,0.931020286498663
-5.410457212029339,1.7289701694337622,0.0038662530277924,3,0.7044998241158895,0.8574748872106308,0.931020286498663
-5.175935967076998,1.4484434602659495,-0.0482184365250909,3,0.7044998241158895,0.8574748872106308,0.931020286498663
-5.14954974724898,1.241607131236661,-0.0967156789701985,3,0.7044998241158895,0.8574748872106308,0.931020286498663
-5.181011211977965,1.0530380789460676,-0.1474930020628277,3,0.7044998241158895,0.8574748872106308,0.931020286498663
-5.420514515036618,1.7346869368513915,-0.2047126790755042,3,0.7044998241158895,0.8574748872106308,0.931020286498663
-5.2673387098232975,1.4765995356638777,-0.2477394011202482,3,0.7044998241158895,0.8574748872106308,0.931020286498663
-5.324545001645263,1.286357038110847,-0.3011698674722379,3,0.7044998241158895,0.8574748872106308,0.931020286498663
-5.4183368734581725,1.1031455470831866,-0.35689797657262,3,0.7044998241158895,0.8574748872106308,0.931020286498663
-5.803049337762134,1.8604568462206903,-0.4420611948913515,3,0.7044998241158895,0.8574748872106308,0.931020286498663
-7.249103220998784,1.4795412274900293,1.1539520871357454,3,0.7044998241158895,0.8574748872106308,0.931020286498663
-6.505653939981562,1.3313518578872483,0.7873633539538343,3,0.7044998241158895,0.8574748872106308,0.931020286498663
-5.468695541438722,1.543323419034405,0.5718765014342738,3,0.7044998241158895,0.8574748872106308,0.931020286498663
-5.235127187677646,1.0740102392467552,0.4370225000342416,3,0.7044998241158895,0.8574748872106308,0.931020286498663
-5.643212755918826,1.8182088515655863,0.4373671868635893,3,0.7044998241158895,0.8574748872106308,0.931020286498663
-5.2543266044247225,1.4836182982443362,0.3503881645243941,3,0.7044998241158895,0.8574748872106308,0.931020286498663
-5.22236649556683,1.271687684148925,0.2939206056769923,3,0.7044998241158895,0.8574748872106308,0.931020286498663
-5.306368660088259,1.091521474897823,0.2448688644013327,3,0.7044998241158895,0.8574748872106308,0.931020286498663
-5.602710973402698,1.8071024455798768,0.2188477635814436,3,0.7044998241158895,0.8574748872106308,0.931020286498663
-5.3056387542735965,1.5011069278302729,0.1520910566430717,3,0.7044998241158895,0.8574748872106308,0.931020286498663
-5.23169539165094,1.27628099199338,0.097288260218993,3,0.7044998241158895,0.8574748872106308,0.931020286498663
-5.458387188851983,1.1233875360613064,0.0483411903558109,3,0.7044998241158895,0.8574748872106308,0.931020286498663
-5.173391802238614,1.4648611011146655,-0.0482363774737108,3,0.7044998241158895,0.8574748872106308,0.931020286498663
-5.157371122296153,1.260247790468038,-0.0969347407849743,3,0.7044998241158895,0.8574748872106308,0.931020286498663
-5.197335542055698,1.0729704200337895,-0.1480507376599519,3,0.7044998241158895,0.8574748872106308,0.931020286498663
-5.442742457099605,1.760226634437514,-0.2057551197729218,3,0.7044998241158895,0.8574748872106308,0.931020286498663
-5.341590677869745,1.5151057199599274,-0.2514491348931663,3,0.7044998241158895,0.8574748872106308,0.931020286498663
-5.282749144608244,1.2934257414722543,-0.2990288676805887,3,0.7044998241158895,0.8574748872106308,0.931020286498663
-5.431540297159308,1.123199083288264,-0.3579929441616146,3,0.7044998241158895,0.8574748872106308,0.931020286498663
-5.8049048410458095,1.880710903405184,-0.4426399861647226,3,0.7044998241158895,0.8574748872106308,0.931020286498663
-7.241627427457722,1.5011724632468768,1.153489792798616,3,0.7044998241158895,0.8574748872106308,0.931020286498663
-6.766297645459503,1.6645176346860089,0.8928721130801908,3,0.7044998241158895,0.8574748872106308,0.931020286498663
-6.479176406332705,1.3466568375881596,0.7846552160638948,3,0.7044998241158895,0.8574748872106308,0.931020286498663
-5.688768394081961,1.6242896526360542,0.5954084738867956,3,0.7044998241158895,0.8574748872106308,0.931020286498663
-5.236686327875191,1.0910828157207368,0.4374300174570649,3,0.7044998241158895,0.8574748872106308,0.931020286498663
-5.282375184536904,1.5090516119452382,0.3525656714465337,3,0.7044998241158895,0.8574748872106308,0.931020286498663
-5.238798509589775,1.292727197097077,0.2950672498148196,3,0.7044998241158895,0.8574748872106308,0.931020286498663
-5.377313302710024,1.1233211297921415,0.2483005426192002,3,0.7044998241158895,0.8574748872106308,0.931020286498663
-5.546783915194299,1.8078700749975216,0.2168788429086231,3,0.7044998241158895,0.8574748872106308,0.931020286498663
-5.325034134771228,1.5242544471296668,0.1527803696336703,3,0.7044998241158895,0.8574748872106308,0.931020286498663
-5.242314616833797,1.2959247306312616,0.0975592080914592,3,0.7044998241158895,0.8574748872106308,0.931020286498663
-5.4627454761194185,1.1417649835813026,0.0484105850272014,3,0.7044998241158895,0.8574748872106308,0.931020286498663
-5.246690437549571,1.7121877496479423,0.0037566638350508,3,0.7044998241158895,0.8574748872106308,0.931020286498663
-5.2111703442136905,1.492842672044754,-0.048631098021854,3,0.7044998241158895,0.8574748872106308,0.931020286498663
-5.15930397638606,1.2775064324069645,-0.0970442719565288,3,0.7044998241158895,0.8574748872106308,0.931020286498663
-5.193040907670712,1.0887054516538068,-0.1480228429059063,3,0.7044998241158895,0.8574748872106308,0.931020286498663
-5.3974196541059145,1.7638782650882254,-0.2042453786263099,3,0.7044998241158895,0.8574748872106308,0.931020286498663
-5.356122054327988,1.5369972621970145,-0.252353963335012,3,0.7044998241158895,0.8574748872106308,0.931020286498663
-5.241930263626706,1.300490496513263,-0.2969427358619538,3,0.7044998241158895,0.8574748872106308,0.931020286498663
-5.429045237476427,1.140062624481539,-0.3580573468615505,3,0.7044998241158895,0.8574748872106308,0.931020286498663
-5.795316161395451,1.897270026728061,-0.442350605269407,3,0.7044998241158895,0.8574748872106308,0.931020286498663
-6.741910332282707,1.680470601226023,0.8903300950301505,3,0.7044998241158895,0.8574748872106308,0.931020286498663
-6.534284698286,1.3790370478427048,0.7918376951735944,3,0.7044998241158895,0.8574748872106308,0.931020286498663
-6.873849424800604,1.9854887041442009,0.7200777290281491,3,0.7044998241158895,0.8574748872106308,0.931020286498663
-5.245990204676565,1.1098253227973232,0.4384895494417909,3,0.7044998241158895,0.8574748872106308,0.931020286498663
-5.301688508827796,1.532177302353276,0.3541668009249255,3,0.7044998241158895,0.8574748872106308,0.931020286498663
-5.224152123681395,1.3061294257987022,0.2944666431535847,3,0.7044998241158895,0.8574748872106308,0.931020286498663
-5.37090966369135,1.139191371873974,0.2481650904380788,3,0.7044998241158895,0.8574748872106308,0.931020286498663
-5.582974553650258,1.838632631330416,0.218513411185678,3,0.7044998241158895,0.8574748872106308,0.931020286498663
-5.3424167127120565,1.546979039957597,0.1534145479561347,3,0.7044998241158895,0.8574748872106308,0.931020286498663
-5.24219350210895,1.3129735010705508,0.0976314636852937,3,0.7044998241158895,0.8574748872106308,0.931020286498663
-5.452369923420694,1.157066047590649,0.0483498665691373,3,0.7044998241158895,0.8574748872106308,0.931020286498663
-5.158269412539092,1.294058741112044,-0.0970990336718193,3,0.7044998241158895,0.8574748872106308,0.931020286498663
-5.469300995216874,1.1641509190902897,-0.1559984510448216,3,0.7044998241158895,0.8574748872106308,0.931020286498663
-5.561846459756628,1.836517943940292,-0.2106797296929421,3,0.7044998241158895,0.8574748872106308,0.931020286498663
-5.344665731843783,1.551472941715546,-0.2520372835971252,3,0.7044998241158895,0.8574748872106308,0.931020286498663
-5.255346303246936,1.3209476766357349,-0.2979308914957893,3,0.7044998241158895,0.8574748872106308,0.931020286498663
-5.45382568842612,1.1627476833818138,-0.3599252665246113,3,0.7044998241158895,0.8574748872106308,0.931020286498663
-5.807459719052588,1.9209920421581848,-0.4437252672343937,3,0.7044998241158895,0.8574748872106308,0.931020286498663
-6.68382963343304,1.6877899371865952,0.8833396624110719,3,0.7044998241158895,0.8574748872106308,0.931020286498663
-6.520313055894547,1.396997037260047,0.7906602645216685,3,0.7044998241158895,0.8574748872106308,0.931020286498663
-6.885871389476513,2.011869896696703,0.7219803091518214,3,0.7044998241158895,0.8574748872106308,0.931020286498663
-5.29653515581526,1.33953787695036,0.498545303804925,3,0.7044998241158895,0.8574748872106308,0.931020286498663
-5.246458711664957,1.1267517304695278,0.4388155868518503,3,0.7044998241158895,0.8574748872106308,0.931020286498663
-5.326656567532353,1.5571156051419517,0.3561521723763288,3,0.7044998241158895,0.8574748872106308,0.931020286498663
-5.2327033262830245,1.3253378445544228,0.2951764451179384,3,0.7044998241158895,0.8574748872106308,0.931020286498663
-5.353717056043658,1.1527199221044626,0.2475329240142345,3,0.7044998241158895,0.8574748872106308,0.931020286498663
-5.343401262934131,1.565047948231121,0.1535799806397675,3,0.7044998241158895,0.8574748872106308,0.931020286498663
-5.25170872766357,1.332492633586336,0.0978843440693181,3,0.7044998241158895,0.8574748872106308,0.931020286498663
-5.462479722274865,1.176736306564115,0.0484713035636672,3,0.7044998241158895,0.8574748872106308,0.931020286498663
-5.404961007159663,1.80060772864374,0.0038778247033527,3,0.7044998241158895,0.8574748872106308,0.931020286498663
-5.203831453171868,1.5253523117331502,-0.0486490390314163,3,0.7044998241158895,0.8574748872106308,0.931020286498663
-5.162027477797662,1.3118481891110956,-0.0972450799208367,3,0.7044998241158895,0.8574748872106308,0.931020286498663
-5.293740182515292,1.1437704109323177,-0.1510903811493418,3,0.7044998241158895,0.8574748872106308,0.931020286498663
-5.717344874722306,1.907336192635763,-0.2167905472434458,3,0.7044998241158895,0.8574748872106308,0.931020286498663
-5.360009489089735,1.5737729581660351,-0.2529873515866069,3,0.7044998241158895,0.8574748872106308,0.931020286498663
-5.224175620375076,1.3301661513864644,-0.2963937473696083,3,0.7044998241158895,0.8574748872106308,0.931020286498663
-5.421947818401463,1.173353202869505,-0.35805734699945,3,0.7044998241158895,0.8574748872106308,0.931020286498663
-6.875850042379461,2.031858055619661,0.7215797661358127,3,0.7044998241158895,0.8574748872106308,0.931020286498663
-5.2449244486978,1.143266919423464,0.4389785754955145,3,0.7044998241158895,0.8574748872106308,0.931020286498663
-5.328553259176434,1.5754307962949488,0.3566004885128219,3,0.7044998241158895,0.8574748872106308,0.931020286498663
-5.245054856563877,1.345603521379733,0.2961046974659688,3,0.7044998241158895,0.8574748872106308,0.931020286498663
-5.328684716421647,1.1644475195359083,0.2465395529648052,3,0.7044998241158895,0.8574748872106308,0.931020286498663
-5.344325654259743,1.5831374040442363,0.153745413647612,3,0.7044998241158895,0.8574748872106308,0.931020286498663
-5.247595885987442,1.3485984321691074,0.0978843440304916,3,0.7044998241158895,0.8574748872106308,0.931020286498663
-5.420745351113978,1.1851598222459356,0.0481330099948265,3,0.7044998241158895,0.8574748872106308,0.931020286498663
-5.353481014584378,1.5870692623748666,-0.0500933490352755,3,0.7044998241158895,0.8574748872106308,0.931020286498663
-5.17347066463218,1.3316665713298086,-0.0975371576140159,3,0.7044998241158895,0.8574748872106308,0.931020286498663
-5.240409371866207,1.1490868354585515,-0.1496681694478425,3,0.7044998241158895,0.8574748872106308,0.931020286498663
-5.356113266748802,1.590494138376091,-0.2530325910922497,3,0.7044998241158895,0.8574748872106308,0.931020286498663
-5.22587135141268,1.3476834891008298,-0.2967231520489428,3,0.7044998241158895,0.8574748872106308,0.931020286498663
-5.412474565462292,1.1886975905727626,-0.3576709002417699,3,0.7044998241158895,0.8574748872106308,0.931020286498663
-7.132920060030715,1.5701707876135578,1.1391578562118496,3,0.7044998241158895,0.8574748872106308,0.931020286498663
-6.571740567304105,1.4502463999019013,0.7979604627262319,3,0.7044998241158895,0.8574748872106308,0.931020286498663
-6.858143904587627,2.049524415038104,0.7203781356738169,3,0.7044998241158895,0.8574748872106308,0.931020286498663
-5.241392657481908,1.1593526662275215,0.4389785762896622,3,0.7044998241158895,0.8574748872106308,0.931020286498663
-5.513963036986967,1.648660977239126,0.3693453619378943,3,0.7044998241158895,0.8574748872106308,0.931020286498663
-5.2486334715022025,1.36369755633198,0.2965415103802203,3,0.7044998241158895,0.8574748872106308,0.931020286498663
-5.351419963636576,1.1866292369552516,0.2477587062519012,3,0.7044998241158895,0.8574748872106308,0.931020286498663
-5.460097630463454,1.6356703936293957,0.1572195743840506,3,0.7044998241158895,0.8574748872106308,0.931020286498663
-5.243433865972125,1.3646914722110122,0.0978843440846875,3,0.7044998241158895,0.8574748872106308,0.931020286498663
-5.45515657748004,1.210231336637428,0.0484713035661335,3,0.7044998241158895,0.8574748872106308,0.931020286498663
-5.45490700369826,1.6353604292076511,-0.0510891153778877,3,0.7044998241158895,0.8574748872106308,0.931020286498663
-5.172263298884763,1.3482889441331063,-0.0975919267192279,3,0.7044998241158895,0.8574748872106308,0.931020286498663
-5.248568091658245,1.1677639418806862,-0.1500028047628682,3,0.7044998241158895,0.8574748872106308,0.931020286498663
-5.391392952567818,1.618985970472632,-0.2549326982869384,3,0.7044998241158895,0.8574748872106308,0.931020286498663
-5.233304799185461,1.3667375457300892,-0.2973819316694309,3,0.7044998241158895,0.8574748872106308,0.931020286498663
-5.435100982254657,1.2111576432743083,-0.3594099846540943,3,0.7044998241158895,0.8574748872106308,0.931020286498663
-7.1647124285244095,1.6002310998907103,1.1450138936174628,3,0.7044998241158895,0.8574748872106308,0.931020286498663
-6.573074739331877,1.4717032146987858,0.7986669563364844,3,0.7044998241158895,0.8574748872106308,0.931020286498663
-6.869920047649768,2.0760238669031343,0.722280716026769,3,0.7044998241158895,0.8574748872106308,0.931020286498663
-5.319619704546582,1.3975919645732284,0.5019077211785575,3,0.7044998241158895,0.8574748872106308,0.931020286498663
-5.243645799607106,1.1767370190611968,0.4394676019170398,3,0.7044998241158895,0.8574748872106308,0.931020286498663
-5.481177294341939,1.6571943010166563,0.3674880812295641,3,0.7044998241158895,0.8574748872106308,0.931020286498663
-5.239596816985082,1.378523463679849,0.2962684916721914,3,0.7044998241158895,0.8574748872106308,0.931020286498663
-5.313642614978441,1.195367787837375,0.2461783192476319,3,0.7044998241158895,0.8574748872106308,0.931020286498663
-5.379475559065493,1.6295201623128042,0.1550413376301422,3,0.7044998241158895,0.8574748872106308,0.931020286498663
-5.251791141343832,1.384084103354334,0.0981191713413753,3,0.7044998241158895,0.8574748872106308,0.931020286498663
-5.428004736148921,1.221692080740426,0.0482631232054491,3,0.7044998241158895,0.8574748872106308,0.931020286498663
-5.481443732101601,1.6616613429207103,-0.0513851567010229,3,0.7044998241158895,0.8574748872106308,0.931020286498663
-5.187437131820763,1.3692543501749763,-0.0979570276694904,3,0.7044998241158895,0.8574748872106308,0.931020286498663
-5.2303347745995445,1.1805594533784725,-0.1495844996585445,3,0.7044998241158895,0.8574748872106308,0.931020286498663
-5.420812230976928,1.6459677042181824,-0.2565613654171536,3,0.7044998241158895,0.8574748872106308,0.931020286498663
-5.2831447382602015,1.397081678405675,-0.3004561912557813,3,0.7044998241158895,0.8574748872106308,0.931020286498663
-5.434279830171896,1.2284867573376694,-0.359603193912867,3,0.7044998241158895,0.8574748872106308,0.931020286498663
-7.088460580391051,1.606048004367188,1.1336099752869688,3,0.7044998241158895,0.8574748872106308,0.931020286498663
-6.559813340108556,1.489882677579119,0.7976072455966376,3,0.7044998241158895,0.8574748872106308,0.931020286498663
-6.891113637788946,2.105522080342637,0.7251846547265829,3,0.7044998241158895,0.8574748872106308,0.931020286498663
-5.240982692717043,1.1930399766560025,0.4395491109782327,3,0.7044998241158895,0.8574748872106308,0.931020286498663
-5.621128592642231,1.7183470089657382,0.3772228608120615,3,0.7044998241158895,0.8574748872106308,0.931020286498663
-5.235342771690774,1.3945917726422143,0.2962684914562797,3,0.7044998241158895,0.8574748872106308,0.931020286498663
-5.3547517205629065,1.221887310904613,0.2482553920641065,3,0.7044998241158895,0.8574748872106308,0.931020286498663
-5.506351005588165,1.686413096753422,0.1588463641988771,3,0.7044998241158895,0.8574748872106308,0.931020286498663
-5.262976472503528,1.4043140622895238,0.0984081793097252,3,0.7044998241158895,0.8574748872106308,0.931020286498663
-5.413507147581522,1.2358911275234878,0.0481677072884068,3,0.7044998241158895,0.8574748872106308,0.931020286498663
-5.492573294368896,1.6834517909235844,-0.0515376590206418,3,0.7044998241158895,0.8574748872106308,0.931020286498663
-5.208326269192105,1.391874264973364,-0.0984316595093324,3,0.7044998241158895,0.8574748872106308,0.931020286498663
-5.176019136508146,1.1850001324673904,-0.1481343928426504,3,0.7044998241158895,0.8574748872106308,0.931020286498663
-5.434836739858334,1.6684542301481338,-0.2574661934930032,3,0.7044998241158895,0.8574748872106308,0.931020286498663
-5.31741444657531,1.423612664349405,-0.3026521153163327,3,0.7044998241158895,0.8574748872106308,0.931020286498663
-5.44410258126658,1.2482754684576478,-0.3605049517762994,3,0.7044998241158895,0.8574748872106308,0.931020286498663
-6.693592722211196,1.5418772357380026,0.8144447835317661,3,0.7044998241158895,0.8574748872106308,0.931020286498663
-6.876065610703379,2.124011007352408,0.7242834323762934,3,0.7044998241158895,0.8574748872106308,0.931020286498663
-5.349408263536389,1.4405644766277936,0.5055427116400396,3,0.7044998241158895,0.8574748872106308,0.931020286498663
-5.242153774310885,1.210234457723783,0.4399566285967692,3,0.7044998241158895,0.8574748872106308,0.931020286498663
-5.692106265985946,1.7591575423329786,0.3823464165140049,3,0.7044998241158895,0.8574748872106308,0.931020286498663
-5.207901974835405,1.4044075582192377,0.2949580535887588,3,0.7044998241158895,0.8574748872106308,0.931020286498663
-5.352924445346264,1.2387601371629664,0.2483456933874989,3,0.7044998241158895,0.8574748872106308,0.931020286498663
-5.616693473669672,1.7390733207791984,0.1621826596791478,3,0.7044998241158895,0.8574748872106308,0.931020286498663
-5.277948300853933,1.42566864825176,0.098769443110832,3,0.7044998241158895,0.8574748872106308,0.931020286498663
-5.361954964600477,1.2414416230364802,0.0477426740634522,3,0.7044998241158895,0.8574748872106308,0.931020286498663
-5.490247863506961,1.7011827364748575,-0.0515645741122867,3,0.7044998241158895,0.8574748872106308,0.931020286498663
-5.177972511984657,1.4007969180192812,-0.0979387735889143,3,0.7044998241158895,0.8574748872106308,0.931020286498663
-5.152885255547917,1.1963530018159558,-0.147576657487918,3,0.7044998241158895,0.8574748872106308,0.931020286498663
-5.455452962706553,1.6931149535706456,-0.2586877015103584,3,0.7044998241158895,0.8574748872106308,0.931020286498663
-5.33711527999293,1.446449243724726,-0.3040245720405442,3,0.7044998241158895,0.8574748872106308,0.931020286498663
-5.441219471537776,1.265197871285718,-0.3605693550733327,3,0.7044998241158895,0.8574748872106308,0.931020286498663
-6.920803337163392,2.161111306378463,0.7296907662052561,3,0.7044998241158895,0.8574748872106308,0.931020286498663
-5.2315886390758894,1.426064857452948,0.4948193596468644,3,0.7044998241158895,0.8574748872106308,0.931020286498663
-5.241327326779417,1.2269930637919948,0.4402011269233761,3,0.7044998241158895,0.8574748872106308,0.931020286498663
-5.700018325494384,1.780778658991497,0.3832430493851065,3,0.7044998241158895,0.8574748872106308,0.931020286498663
-5.217054545614582,1.4240596700435677,0.295722482985084,3,0.7044998241158895,0.8574748872106308,0.931020286498663
-5.310195930253406,1.2460482560186612,0.246539552770344,3,0.7044998241158895,0.8574748872106308,0.931020286498663
-5.618963577641965,1.7586855737609166,0.1624032415994748,3,0.7044998241158895,0.8574748872106308,0.931020286498663
-5.266798445168899,1.4400086122714777,0.0986429993206683,3,0.7044998241158895,0.8574748872106308,0.931020286498663
-5.339624262010302,1.25354369943723,0.0475778634433515,3,0.7044998241158895,0.8574748872106308,0.931020286498663
-5.4859573035600295,1.718317461235346,-0.0515735446615656,3,0.7044998241158895,0.8574748872106308,0.931020286498663
-5.172686492735923,1.416412112303448,-0.0979205197682006,3,0.7044998241158895,0.8574748872106308,0.931020286498663
-5.147244567557035,1.211698148609182,-0.1475208824569877,3,0.7044998241158895,0.8574748872106308,0.931020286498663
-5.499797950231764,1.7253935665325626,-0.2610402372464641,3,0.7044998241158895,0.8574748872106308,0.931020286498663
